154

1e-10 0 0 255 255 255
1e-10 0 100.0 255 255 255
1e-10 100.0 0 255 255 255
1e-10 100.0 100.0 255 255 255
0.0757 49.3057 64.6029  255 255 255
0.2087 30.7964 75.864  255 255 255
0.781 58.5426 67.5642  0 255 0
0.407 13.187 93.2025  255 255 255
0.2797 35.6833 26.6538  255 255 255
0.6424 43.1894 34.6118  255 255 255
0.692 50.8878 65.2896  255 255 255
0.6923 68.6655 24.2284  255 255 255
0.1712 69.2483 96.3188  0 255 0
0.6618 87.4182 87.1353  255 255 255
0.6198 5.9209 74.0165  255 255 255
0.2805 92.0423 54.2838  255 255 255
0.1027 44.6093 49.8032  255 255 255
0.7828 64.6249 42.8242  255 255 255
0.9464 62.0887 87.7156  255 0 0
0.6955 36.8438 46.0489  255 255 255
0.5634 67.7245 96.2068  0 255 0
0.8864 52.0609 60.9533  255 255 255
0.6101 46.2421 34.0931  255 255 255
0.0255 23.2492 96.4134  255 255 255
0.3996 65.8147 54.2417  255 255 255
0.7255 26.4067 62.8514  255 255 255
0.874 60.542 89.8949  0 255 0
0.2212 1.5835 84.4748  255 255 255
0.0903 81.5755 8.4269  255 255 255
0.067 29.467 17.6993  255 255 255
0.8885 91.2195 49.3856  255 255 255
0.9486 28.3174 12.4863  255 255 255
0.2249 84.0475 25.3761  255 255 255
0.3152 21.5686 1.3588  255 255 255
0.7775 51.5995 15.3712  255 255 255
0.6973 75.5784 68.512  255 255 255
0.8258 71.8193 86.664  0 255 0
0.5099 22.8532 93.9626  255 255 255
0.0965 25.9025 33.3152  255 255 255
0.5773 38.4263 94.4842  255 255 255
0.7137 68.692 21.596  255 255 255
0.7451 13.9588 80.8674  255 255 255
0.2845 22.3518 80.1402  255 255 255
0.0624 3.1048 61.5891  255 255 255
0.3559 7.3732 2.7592  255 255 255
0.9807 72.7606 52.9621  255 255 255
0.2297 25.19 63.7707  255 255 255
0.1811 90.804 46.6088  255 255 255
0.9731 77.5637 84.2988  0 255 0
0.5772 69.0612 13.2813  255 255 255
0.8211 62.7096 40.7182  255 255 255
0.5842 90.2683 44.7772  255 255 255
0.3725 65.5889 32.9222  255 255 255
0.9062 47.8975 68.0135  255 255 255
0.2309 58.3448 4.2271  255 255 255
0.3008 99.9008 47.4565  255 255 255
0.6674 27.7376 24.9535  255 255 255
0.9517 95.4154 62.3837  255 255 255
0.279 47.2971 73.9711  0 255 0
0.2294 26.6564 42.4473  255 255 255
0.086 37.4855 33.5983  255 255 255
0.8449 34.1536 64.3759  255 255 255
0.9556 28.5471 6.0103  255 255 255
0.8935 59.0764 42.7692  255 255 255
0.3503 17.6982 65.1493  255 255 255
0.9993 38.7243 1.8681  255 255 255
0.284 49.7043 84.2839  0 255 0
0.4501 40.7406 20.6868  255 255 255
0.6375 30.7797 52.6583  255 255 255
0.6352 73.8461 80.1111  0 255 0
0.7146 89.0366 34.1002  255 255 255
0.4259 45.0411 78.2063  0 255 0
0.3564 48.3039 82.2616  0 255 0
0.7293 45.7771 92.2657  0 255 0
0.0515 82.6523 67.2554  255 255 255
0.3023 96.7653 16.3084  255 255 255
0.4046 1.535 44.16  255 255 255
0.1252 60.5569 58.4008  255 255 255
0.9341 62.8241 31.5152  255 255 255
0.7463 80.4304 86.7988  0 255 0
0.8017 35.8925 94.7085  255 255 255
0.5563 39.6488 4.5449  255 255 255
0.6624 77.6882 99.3952  0 255 0
0.7673 4.0545 69.7041  255 255 255
0.5247 69.7942 41.0915  255 255 255
0.9088 88.1971 68.3118  255 255 255
0.9956 86.5674 69.1973  255 255 255
0.2118 96.7727 28.5473  255 255 255
0.0442 59.4326 9.97  255 255 255
0.114 29.8306 1.0811  255 255 255
0.9536 13.8131 15.4188  255 255 255
0.7347 5.4787 63.3776  255 255 255
0.0541 47.8198 69.0449  255 255 255
0.2477 1.8403 46.1758  255 255 255
0.3875 31.3505 64.8351  255 255 255
0.3789 61.7358 33.1256  255 255 255
0.3998 86.5863 12.1548  255 255 255
0.1012 75.8525 54.8132  255 255 255
0.379 5.0293 34.3368  255 255 255
0.8086 50.533 67.9355  255 255 255
0.9187 94.7787 37.3314  255 255 255
0.8826 70.3237 54.3502  255 255 255
0.5577 8.4025 90.6572  255 255 255
0.3389 89.842 39.507  255 255 255
0.0101 37.3416 56.4606  255 255 255
0.3403 55.1812 98.0003  0 255 0
0.0804 51.3058 90.5726  0 255 0
0.931 40.7383 50.313  255 255 255
0.6737 54.5983 33.9616  255 255 255
0.9036 76.4892 67.2992  255 255 255
0.0287 49.1828 37.4639  255 255 255
0.0832 11.3591 50.8166  255 255 255
0.2748 78.0167 94.7834  0 255 0
0.4644 32.8947 47.4591  255 255 255
0.7741 32.2887 63.1867  255 255 255
0.9143 26.3967 28.421  255 255 255
0.5531 17.7711 59.2829  255 255 255
0.1422 85.9367 83.4623  255 255 255
0.5768 61.9304 59.0673  255 255 255
0.7837 62.2743 69.1632  0 255 0
0.1309 63.7759 47.4243  255 255 255
0.2117 95.5734 71.8836  255 255 255
0.7426 63.1087 37.9004  255 255 255
0.5274 80.2784 49.2504  255 255 255
0.2136 85.8282 31.8266  255 255 255
0.2453 87.0178 1.9883  255 255 255
0.8224 83.315 9.5192  255 255 255
0.1432 54.6848 13.5765  255 255 255
0.4493 71.5261 18.7249  255 255 255
0.5839 88.2042 33.5503  255 255 255
0.7927 0.6156 73.5874  255 255 255
0.576 99.301 30.5781  255 255 255
0.9622 25.6532 51.4931  255 255 255
0.2939 25.8184 4.3486  255 255 255
0.1072 93.5003 35.7279  255 255 255
0.6946 7.6989 80.3044  255 255 255
0.4892 9.6622 35.9696  255 255 255
0.6905 81.9468 10.923  255 255 255
0.5431 29.2339 96.3053  255 255 255
0.8023 38.5743 89.8393  255 255 255
0.0028 86.4377 62.2774  255 255 255
0.0166 28.6247 58.8684  255 255 255
0.3352 15.4558 15.3951  255 255 255
0.771 71.7041 63.5333  255 255 255
0.6847 97.6936 34.9848  255 255 255
0.4722 29.5774 87.9434  255 255 255
0.6571 5.176 90.411  255 255 255
0.1674 16.6539 30.1801  255 255 255
0.33 94.0231 16.343  255 255 255
0.4959 71.8285 80.6063  0 255 0
0.1227 24.4513 0.0948  255 255 255
0.2052 21.4391 8.2146  255 255 255
0.64 58.005 59.2484  255 255 255
0.0423 81.706 25.8584  255 255 255